 0.968948405695 0.870558970910 1.032046695286 1.148687261191 0.680497130298 1.848644744324
 0.961601209801 0.929279200442 1.039932135908 1.076102854260 0.673097556636 1.807430510440
 1.043177299643 0.986381540109 0.958609816703 1.013806482925 0.596781960935 1.942081384909
 1.024962312047 0.978936332044 0.975645629353 1.021516892638 0.623695966560 1.854571381181
 1.016103662110 0.982523526869 0.984151555879 1.017787332978 0.610889919624 1.919274655942
 1.066558830922 1.027090858370 0.937594787092 0.973623698284 0.596909028062 1.854924990506
 1.024693796518 0.900012159450 0.975901292072 1.111096099647 0.711700383936 1.632775854431
 1.002097399554 0.885074209080 0.997906990324 1.129848762670 0.670775887740 1.818528600993
 0.958531085764 0.930615789806 1.043262983175 1.074557310283 0.732127951308 1.616104653156
 0.927955076348 0.922808510240 1.077638374409 1.083648437247 0.744622352754 1.623880839029
 1.030057623840 0.936009618552 0.970819473450 1.068365089610 0.610913480682 1.965945272564
 1.062069953684 1.031320355967 0.941557565518 0.969630817635 0.569078916458 1.992276224928
 0.987482806324 0.931550376329 1.012675859869 1.073479250732 0.623891452262 1.976558880018
 1.058173969620 0.951700848979 0.945024191400 1.050750349831 0.624636012501 1.840943619612
 1.065706410722 0.896077342012 0.938344735416 1.115975098482 0.685309009236 1.670740860159
 1.033395334854 1.004757004912 0.967683873027 0.995265517047 0.633716010589 1.770826305371
 1.023966653919 0.912707113043 0.976594302337 1.095641729652 0.623726598349 1.948268984341
 1.030116751888 0.898981627430 0.970763749029 1.112369785419 0.666858645880 1.777101846720
 0.937093223168 0.928678881897 1.067129689210 1.076798470918 0.659764752081 1.896384995564
 1.068811146529 0.979630166100 0.935618984933 1.020793391838 0.586553133498 1.965149019427
 1.045962560445 0.902943363219 0.956057164775 1.107489174553 0.632122169922 1.890300856600
 1.041912698316 0.953671440093 0.959773310774 1.048579162549 0.665566799621 1.703207891135
 0.941616731635 0.887498410680 1.062003218936 1.126762581168 0.751928526977 1.627292006829
 0.964698778692 0.949470992536 1.036592998859 1.053218063386 0.624581805793 1.981436364792
 1.021783271770 0.962133851080 0.978681123119 1.039356425177 0.689529608520 1.638758433644
 0.963349582485 0.909364105314 1.038044774380 1.099669531880 0.712851036960 1.692617486841
 0.940098001788 0.904757633901 1.063718886858 1.105268375232 0.649615632187 1.973891846662
 0.885783420653 0.879343821800 1.128944137679 1.137211606209 0.780471317706 1.624623969142
 0.990015445244 0.962305430044 1.010085251502 1.039171108028 0.687218619116 1.681906332871
 1.011280357280 0.973055652228 0.988845469806 1.027690448856 0.602902062360 1.979182748394
 1.063486855928 0.975076046012 0.940303111811 1.025561036075 0.619040206796 1.828091697755
 0.963805061822 0.870537297236 1.037554210505 1.148715859935 0.690491970330 1.818025835059
 1.000096534801 0.899691489346 0.999903474517 1.111492119067 0.712036174885 1.661368039973
 1.065721999617 0.960079487041 0.938331009738 1.041580424848 0.667513848866 1.662196228852
 0.882824163758 0.881305492225 1.132728397174 1.134680322342 0.772540868413 1.647649009173
 1.033118192153 0.995171004826 0.967943462419 1.004852427523 0.601237924890 1.922642998513
 1.063649367984 0.884676786609 0.940159445490 1.130356323504 0.616372745143 1.962324019419
 1.055064325209 0.995336340955 0.947809508962 1.004685510669 0.630407637478 1.768441239496
 1.018488880576 0.913016417078 0.981846752647 1.095270557348 0.662723999374 1.790835012165
 1.053778414345 0.950902173157 0.948966107473 1.051632889512 0.672351791099 1.669478844545
 0.945627723191 0.895446284506 1.057498606984 1.116761571636 0.686232143782 1.825985248555
 1.058727167435 1.040656678810 0.944530404772 0.960931708182 0.657755306884 1.619605347086
 1.035124994815 0.892828448153 0.966066904972 1.120035995794 0.699844960439 1.664580307926
 0.983143936353 0.964804789847 1.017145061902 1.036479099735 0.673945348708 1.731865198490
 1.056616752446 0.880571127037 0.946416946054 1.135626605615 0.618216646974 1.970792031165
 1.013696794677 1.000065346580 0.986488272678 0.999934657690 0.642674049704 1.766074566977
 1.063984661398 1.011451228532 0.939863173108 0.988678417496 0.613423299082 1.806409949128
 0.934538005623 0.892420324248 1.070047439466 1.120548213469 0.650820936751 1.998014875602
 0.924135360935 0.906739644421 1.082092561622 1.102852407693 0.728537096524 1.695148656903
 1.058227573544 1.021420510180 0.944976321729 0.979028705644 0.611424796975 1.809810817151
 1.001666428368 0.938730554345 0.998336343996 1.065268404625 0.697878598410 1.660618593737
 1.005508962427 0.947506376829 0.994521219967 1.055401867950 0.706769285390 1.619672385993
 0.974875131027 0.969369642494 1.025772397073 1.031598222354 0.685066009691 1.698497829350
 0.958562410930 0.869587644972 1.043228890052 1.149970340290 0.694687380482 1.811320913884
 1.033797693389 0.885453477832 0.967307246277 1.129364811405 0.690359750191 1.705268570174
 0.914258055902 0.871187762550 1.093783088423 1.147858180506 0.764821276885 1.642866647368
 1.034442628205 1.012203159009 0.966704167766 0.987943962731 0.648339769108 1.707013052689
 1.012880428544 0.907936587918 0.987283367137 1.101398504375 0.638362235324 1.905209833836
 1.060595689376 0.972428500007 0.942866362759 1.028353241388 0.632290657316 1.781208694640
 0.970714904521 0.873857060013 1.030168585382 1.144351914929 0.669900269124 1.883815494438
 1.003734282013 0.896884756191 0.996279610969 1.114970449768 0.723711686660 1.624915195193
 1.040104883009 0.955605019436 0.961441501079 1.046457458532 0.644934885531 1.778121987561
 0.886939534891 0.880588703844 1.127472573565 1.135603938177 0.770035909135 1.650499734104
 1.035692171030 1.024542421321 0.965537857649 0.976045480587 0.665829783572 1.633655942511
 0.943999872099 0.873604165636 1.059322177424 1.144683186432 0.705239588162 1.788525697525
 1.047872672149 1.024425959468 0.954314418706 0.976156442306 0.639797966080 1.708855119108
 1.015558604038 0.932277304080 0.984679757548 1.072642223106 0.653050581560 1.807642784541
 0.927916905060 0.894460528394 1.077682704719 1.117992318560 0.659254261519 1.966462957730
 0.925842282621 0.923926067054 1.080097570365 1.082337684430 0.700407298837 1.763485462934
 1.055682792447 0.953571334362 0.947254238825 1.048689242184 0.599681782643 1.956243732482
 0.958284591119 0.875087599378 1.043531336377 1.142742738796 0.741199040414 1.652069896737
 0.916896974577 0.908501532971 1.090635074307 1.100713607746 0.664348615790 1.938994783529
 1.048546820766 0.874827154480 0.953700855503 1.143082944875 0.652317633859 1.838511135498
 1.000978960966 0.926478228251 0.999021996462 1.079356178599 0.707389777726 1.645310758300
 1.033702778851 1.030732564485 0.967396064381 0.970183764884 0.648809703538 1.685837273286
 0.985320314373 0.891030265642 1.014898389298 1.122296333311 0.681402005881 1.794158404697
 1.046520069380 0.962246263693 0.955547847824 1.039235004313 0.636255401555 1.795676709522
 0.908450641379 0.876995493870 1.100775269950 1.140256713963 0.699796267668 1.855535300211
 0.982175972021 0.890895870362 1.018147489337 1.122465636297 0.654588133496 1.905843873621
 0.938977930663 0.905946116021 1.064987756735 1.103818408529 0.691506998068 1.801383184031
 0.998035000017 0.993574986337 1.001968868810 1.006466561409 0.614293042044 1.913667802708
 0.967726748002 0.926579924769 1.033349550443 1.079237714166 0.653148360480 1.881954679719
 1.022891985415 0.971243687820 0.977620329671 1.029607721050 0.658953676149 1.729165174096
 0.978625855221 0.918178692373 1.021840976983 1.089112618608 0.676412346843 1.786629524188
 1.031252599183 0.890023095486 0.969694525660 1.123566349089 0.691004649219 1.701184488064
 1.027602592117 0.982557968971 0.973138845378 1.017751655963 0.602977141068 1.940157499674
 1.064236456892 1.062294600503 0.939640804000 0.941358451344 0.560818011953 1.989071633093
 0.979607088479 0.887756931029 1.020817439727 1.126434460884 0.656693440148 1.905362916299
 1.068440273372 0.900382313791 0.935943753640 1.110639319190 0.609559837076 1.965067044046
 1.029999589265 0.951544844442 0.970874173565 1.050922618982 0.672960659449 1.694453351049
 0.993835973886 0.928137665929 1.006202256988 1.077426374028 0.689680365734 1.708477412434
 1.007890377348 0.942689257599 0.992171393313 1.060794945884 0.681451507505 1.702167153648
 0.917137453737 0.875598016600 1.090349102989 1.142076593416 0.724311491664 1.757613620544
 0.985625453797 0.886847446649 1.014584187277 1.127589647779 0.709462269343 1.702042181116
 1.031752904861 1.019797787773 0.969224312612 0.980586555481 0.592721929973 1.931101350323
 1.025373508028 0.928138394846 0.975254375279 1.077425527866 0.680984353797 1.699105121413
 0.982716583407 0.935700342927 1.017587386725 1.068718214714 0.643259996117 1.889049975080
 0.887636800263 0.880010158676 1.126586909988 1.136350518390 0.682489167531 1.954309064805
 1.043180343999 0.995243781159 0.958607019153 1.004778948567 0.669476127337 1.644266943744
 1.019622129327 0.914723328829 0.980755488957 1.093226736964 0.667476084098 1.769490054922
 0.949864796298 0.919907096307 1.052781410468 1.087066296166 0.679503292402 1.811925987689
 0.906161737903 0.880666510952 1.103555754091 1.135503607283 0.727287225521 1.755961219270
 1.013217172510 0.964084612557 0.986955242303 1.037253356163 0.605202280915 1.978238701147
 1.064060873670 0.895111664894 0.939795856369 1.117179050636 0.623921642966 1.910876856348
 1.052585203181 0.876790270968 0.950041855973 1.140523604233 0.680805236572 1.723530140145
 1.033831289742 0.924196439767 0.967275811752 1.082021047659 0.700864401865 1.629880175844
 1.019185277533 0.939074032745 0.981175868652 1.064878769011 0.700810542782 1.631171947209
 1.027117815461 0.884889356345 0.973598145166 1.130084787244 0.678035952434 1.757365807380
 0.950292911037 0.891442201364 1.052307123820 1.121777719823 0.674712814190 1.869710113724
 0.956507350664 0.909744736705 1.045470271928 1.099209437168 0.687539831163 1.786746427930
 1.067958440549 1.037972991959 0.936366025148 0.963416204224 0.591999371460 1.861493077092
 0.926344371889 0.894454066008 1.079512145101 1.118000395999 0.760150450705 1.614532882472
 0.966113751125 0.936880832448 1.035074802356 1.067371607323 0.663572911243 1.827667009115
 0.881494594588 0.876457581395 1.134436905388 1.140956529132 0.785959513769 1.618454896003
 1.063971562994 1.028804968533 0.939874743631 0.972001526612 0.629684001595 1.722840796798
 0.980406983916 0.908767313702 1.019984574167 1.100391689845 0.644715331690 1.925430937644
 1.036834804168 0.886773637757 0.964473796578 1.127683500526 0.688639710838 1.705695620799
 0.956102167992 0.954822021607 1.045913327548 1.047315601620 0.712408168273 1.650037472481
 1.051012453964 0.899051974431 0.951463511425 1.112282747205 0.614141079248 1.972217801581
 1.049229934336 1.042695434307 0.953079937271 0.959052823190 0.578657115365 1.944295464661
 1.066085103290 0.991357738577 0.938011418520 1.008717601212 0.603889557348 1.869869940020
 1.000142744620 0.979715169686 0.999857275753 1.020704824159 0.677208929536 1.683482639352
 1.065444984587 0.888437037171 0.938574975213 1.125572165682 0.626011896458 1.908495754081
 0.974173391483 0.927401654256 1.026511305629 1.078281449479 0.699671466936 1.700466894882
 1.055641146354 0.969997541427 0.947291608947 1.030930448060 0.620452259453 1.838842507400
 1.067198636935 0.955204315475 0.937032681069 1.046896442781 0.636770728437 1.775732895230
 1.050723373080 0.994825172517 0.951725283381 1.005201745619 0.669362168637 1.636959690155
 0.976352619391 0.872568266883 1.024220123078 1.146042135559 0.743058489520 1.627467423570
 1.037851797079 0.900045588218 0.963528706906 1.111054832212 0.627321303393 1.928362365609
 0.948948384347 0.929968572106 1.053798095339 1.075305155459 0.682428750640 1.788908236268
 0.949275385655 0.916084117576 1.053435088607 1.091602813338 0.682547029516 1.806516260894
 0.969625932045 0.935947351872 1.031325552413 1.068436165774 0.713878349532 1.651358710558
 0.997411281056 0.899543528276 1.002595437803 1.111674942420 0.704903203612 1.687261261846
 1.052198617399 0.880727997471 0.950390908583 1.135424334041 0.625713297379 1.941458639113
 1.047217105509 0.959434125216 0.954911827490 1.042281042249 0.614980573038 1.888074470378
 0.993774458893 0.947307735795 1.006264541266 1.055623175252 0.634216853167 1.895769843985
 1.021265952059 0.969421554157 0.979176871592 1.031542981185 0.608418668588 1.942232098927
 0.981238436634 0.978020220683 1.019120289897 1.022473747324 0.640456656766 1.844379390701
 1.067070080404 0.874280566602 0.937145571190 1.143797584209 0.702317240442 1.637500282358
 1.032772742091 0.896656863588 0.968267227866 1.115253828536 0.697617469737 1.670398461330
 0.941098051469 0.919942193802 1.062588535211 1.087024822578 0.716228545968 1.696696349485
 0.981926409382 0.965262186115 1.018406257786 1.035987956832 0.700293070752 1.646409340110
 0.972031025344 0.908733273845 1.028773746852 1.100432908953 0.678179282087 1.801298731195
 0.924653761026 0.871346453789 1.081485894667 1.147649130437 0.669337034463 1.964303080428
 0.952493108129 0.944029412152 1.049876362848 1.059289029692 0.634847229325 1.960223595307
 1.021403895007 0.978872186725 0.979044631500 1.021583832457 0.599876332707 1.970126978229
 1.053389974565 0.962337862614 0.949316040731 1.039136086035 0.624262856736 1.835449319670
 1.034669247812 0.960327984537 0.966492434287 1.041310902214 0.618982735565 1.886623888391
 1.000426315676 0.996845772740 0.999573865991 1.003164207891 0.611851784786 1.916918200705
 0.973979215222 0.887427193861 1.026715954890 1.126853004863 0.645049193061 1.967028619325
 1.061990884248 1.010387344018 0.941627668215 0.989719443658 0.590026046415 1.914802153439
 0.938171284611 0.919619774249 1.065903440452 1.087405934498 0.667485105946 1.876074246722
 0.963433052142 0.899110708804 1.037954840533 1.112210087377 0.741547315627 1.618107375657
 1.024220576726 0.904482513286 0.976352186945 1.105604569808 0.623138186714 1.963014126490
 0.938296465034 0.903980849904 1.065761235670 1.106218124096 0.683157140261 1.836285993609
 1.024397795249 0.900640112897 0.976183280204 1.110321409940 0.714980599169 1.622655221960
 0.933274381550 0.871441416474 1.071496249944 1.147524068854 0.701621640271 1.819881442708
 1.008287772133 0.873787291395 0.991780350449 1.144443287111 0.638390025435 1.963051320005
 1.019528524175 0.921865301089 0.980845534272 1.084757175282 0.653903244343 1.812220402938
 0.990994848971 0.894087907051 1.009086980663 1.118458254624 0.654883856002 1.886515718790
 0.950066003090 0.884806956473 1.052558450411 1.130190029231 0.691494289135 1.814585356285
 1.030662974179 0.889042962769 0.970249271637 1.124805034040 0.664333994894 1.798203293285
 0.982718077833 0.976446451929 1.017585839273 1.024121699684 0.684567570774 1.682895749796
 1.026431918584 0.986606323137 0.974248736711 1.013575502760 0.588716401788 2.008418093669
 0.989925598802 0.885700394139 1.010176927650 1.129049966126 0.656547901611 1.893116870698
 0.908710205287 0.892477384932 1.100460844593 1.120476571041 0.677500264948 1.920904775290
 0.960425499765 0.931019637868 1.041205174419 1.074091199934 0.686966137875 1.756260906973
 1.021911243968 0.905339205521 0.978558564555 1.104558373151 0.700710142382 1.664287738837
 0.969421882278 0.872230214187 1.031542632038 1.146486310305 0.707309966830 1.748108320063
 0.981453013633 0.958484839345 1.018897477627 1.043313320097 0.622488784197 1.951310197246
 1.014524874336 0.909711968570 0.985683077169 1.099249031067 0.653203661999 1.837717807301
 0.986035173833 0.960594088514 1.014162604477 1.041022438048 0.645154245237 1.842034935579
 0.882799365000 0.870439816976 1.132760216700 1.148844504234 0.729174117461 1.796395293003
 1.013068194614 0.894435911178 0.987100380129 1.118023088634 0.654400305647 1.855388314848
 1.026292514369 0.946593394655 0.974381071672 1.056419795074 0.689652224951 1.649728223609
 1.017729051015 0.949837288440 0.982579792728 1.052811899649 0.703287344724 1.614164124741
 1.054886236938 0.961294405736 0.947969520299 1.040264037774 0.678668409777 1.637040605597
 1.051235888505 0.893910606023 0.951261282967 1.118680093134 0.616666689105 1.967103261287
 1.055647467258 0.910261712011 0.947285936846 1.098585150628 0.646137343706 1.808362247447
 0.941250524781 0.901423944443 1.062416406337 1.109355931983 0.667155797935 1.899740988575
 1.036304677636 0.933025490855 0.964967177685 1.071782078626 0.603029228852 2.000416753645
 0.889198586804 0.886553135095 1.124608175092 1.127963976906 0.689762459107 1.910396139735
 1.035763782183 0.976159042927 0.965471101810 1.024423230257 0.666174927052 1.683604190607
 0.985861226929 0.924440321835 1.014341544920 1.081735593288 0.625770476904 1.981171176678
 1.032909177495 0.880708793364 0.968139330919 1.135449092293 0.701540229324 1.675039780431
 0.957190940089 0.942553863015 1.044723636756 1.060947325388 0.721444305632 1.635502104378
 1.026811482112 0.971727320208 0.973888603138 1.029095281366 0.671770793837 1.679926012137
 0.987451515940 0.973415953085 1.012707949563 1.027310058799 0.654418536344 1.787006043639
 1.061502526605 0.897851308781 0.942060875916 1.113770164636 0.656264929224 1.776298512307
 0.999448323986 0.895254736932 1.000551980528 1.117000512532 0.661710574805 1.844352761671
 0.926736280201 0.920197215052 1.079055629270 1.086723567125 0.658345779439 1.931302138655
 0.924888049787 0.880491235085 1.081211937197 1.135729647444 0.661613851188 1.983875154426
 1.050884477847 1.036931028326 0.951579380113 0.964384296238 0.600409128112 1.847037428866
 0.918083844645 0.904805983163 1.089225135409 1.105209314050 0.731536305035 1.695776782467
 1.014127787565 0.995547115592 0.986069026273 1.004472801275 0.605924959457 1.927004561541
 1.026393404936 0.898245178963 0.974285293719 1.113281789226 0.707898340123 1.644185862140
 0.997273185448 0.920601096745 1.002734270400 1.086246804980 0.655792486285 1.837073754317
 1.052878081926 1.047118352250 0.949777583147 0.955001884793 0.642332248219 1.670144568825
 0.893046711535 0.871260436712 1.119762255528 1.147762434587 0.747501170674 1.721126385301
 0.960776922409 0.893834132811 1.040824333595 1.118775803353 0.722254130523 1.684551195464
 1.048517306302 0.870772010352 0.953727701002 1.148406228165 0.616492586151 2.008211781291
 1.030450519390 0.875283299722 0.970449314337 1.142487238494 0.662463246258 1.823320001604
 1.039534434406 0.991249817711 0.961969095878 1.008827423857 0.635328390886 1.773173800288
 1.020207908224 0.921529115474 0.980192362693 1.085152908582 0.627047861361 1.925620992434
 1.058806081695 1.026707652671 0.944460007633 0.973987091065 0.619709660915 1.769273890892
 1.000892986943 0.974376950367 0.999107809771 1.026296855260 0.652397800073 1.776447767045
 0.950756768280 0.943503497357 1.051793721973 1.059879484074 0.638505266497 1.946748354085
 0.986229634717 0.963414929331 1.013962635880 1.037974365515 0.690167453805 1.675477802467
 0.997865878155 0.978186454761 1.002138686062 1.022299987015 0.663054988745 1.736492374644
 1.026887980903 0.982134781427 0.973816052575 1.018190190298 0.641637502724 1.775422135897
 1.053379339017 0.934835837781 0.949325625594 1.069706529837 0.600882155303 1.981378305067
 0.887866158276 0.871388062066 1.126295884440 1.147594330853 0.769270504177 1.662826377435
 0.994717118904 0.921588053366 1.005310938151 1.085083510304 0.655077356345 1.842207785904
 0.980230110057 0.909317842480 1.020168621367 1.099725479126 0.657011432016 1.872022652666
 1.057891091693 0.940603248380 0.945276888947 1.063147508498 0.689155846040 1.621911091013
 1.007678454422 0.884473230737 0.992380054978 1.130616467800 0.701972703378 1.701122623064
 0.977807853423 0.968723277536 1.022695815440 1.032286539602 0.653977218231 1.807164558277
 1.029506304493 0.930841569623 0.971339364933 1.074296671564 0.692184949246 1.654798505288
 1.023071482838 0.981305920308 0.977448806633 1.019050205757 0.641098230163 1.783265360607
 0.988968473506 0.885956491177 1.011154578523 1.128723599815 0.644452499567 1.947616264445
 1.051843542184 0.905900841847 0.950711736009 1.103873574023 0.693533302605 1.650651501744
 0.894614468558 0.870064593781 1.117799940808 1.149339953778 0.690985616647 1.923026201040
 1.028398935377 0.919578533800 0.972385292905 1.087454701522 0.649262894031 1.821383200092
 0.896716221180 0.880510554833 1.115180004978 1.135704727798 0.760398211566 1.665985819148
 1.002003300962 0.890817608361 0.998000704229 1.122564249532 0.646178487586 1.912004426154
 1.032715252430 1.022853257354 0.968321129805 0.977657345088 0.581918371315 1.979888085864
 0.989441018911 0.910657227887 1.010671662976 1.098108014055 0.725039480753 1.622981708235
 0.927847664225 0.877709907707 1.077763127028 1.139328599597 0.754409553683 1.648097689484
 0.929433010444 0.881303035456 1.075924772160 1.134683485439 0.693352650010 1.842461757772
 1.019403372501 1.014133022072 0.980965952218 0.986063936619 0.607075128308 1.888430355250
 0.926641592730 0.891921462103 1.079165890940 1.121174949241 0.727359717304 1.714048439306
 0.882495326840 0.869685099455 1.133150476367 1.149841477826 0.754064762650 1.716928362931
 0.962822204738 0.876011873257 1.038613354656 1.141537039084 0.686886434657 1.825521211044
 0.915009399978 0.910204807480 1.092884947438 1.098653832393 0.680803863494 1.870523029248
 0.929132930363 0.873174089650 1.076272261290 1.145246992385 0.707722691929 1.801356841686
 1.061049321526 0.973504454544 0.942463257563 1.027216665863 0.601094782021 1.913462488852
 0.922800258880 0.875356268695 1.083658126856 1.142392001705 0.718540339430 1.769588188025
 1.003024044596 0.870474154470 0.996985072679 1.148799185898 0.642674004564 1.956750314507
 1.030392859953 0.966104532714 0.970503619411 1.035084678871 0.602992622668 1.959860621961
 0.913192980446 0.899694053694 1.095058789777 1.111488951043 0.677521586156 1.902499037177
 1.032351965182 0.882353820436 0.968661884442 1.133332203975 0.629449294071 1.953099849577
 0.882610358577 0.875571823676 1.133002791416 1.142110758889 0.726549697781 1.798408625385
 0.914338456470 0.910373266024 1.093686908741 1.098450533776 0.704412852011 1.782942019005
 1.034931501458 0.915831705358 0.966247523234 1.091903669801 0.615546012913 1.965767369548
 1.061509707874 1.032111063417 0.942054502736 0.968887976735 0.592574928931 1.874729533330
 1.044360429270 0.878441091515 0.957523831786 1.138380262103 0.619805244504 1.986370670483
 1.063070870886 1.019109972260 0.940671057205 0.981248370853 0.573977717311 1.982285167755
 1.036119055348 0.886932027687 0.965140053007 1.127482116762 0.637913076481 1.901742842215
 1.061538870146 0.892183131571 0.942028622902 1.120846118486 0.675078816226 1.714582956901
 0.908735241269 0.898367603016 1.100430526502 1.113130077980 0.731126179923 1.717011517533
 1.063197116066 0.870029036541 0.940559360902 1.149386926183 0.691001784344 1.682907767461
 1.054842929189 1.006549770540 0.948008440241 0.993492849801 0.589004737338 1.935108292092
 1.042553394123 0.918530739520 0.959183487040 1.088695192196 0.638611425188 1.846524674191
 1.064422109588 0.908011941395 0.939476915213 1.101307102266 0.665634146517 1.726365208062
 1.000000112618 0.968533660763 0.999999887382 1.032488637733 0.635601697126 1.851835635625
 1.010824563427 0.932089884464 0.989291353001 1.072857904230 0.659986839590 1.787532007018
 0.956706478047 0.929467676616 1.045252669388 1.075884643606 0.728639246279 1.629500438979
 1.059951990468 0.905028382922 0.943438956663 1.104937722253 0.694204502553 1.639891695734
 1.056607096386 1.036414685830 0.946425595116 0.964864753145 0.568099813912 1.998238043579
 0.985260520218 0.898752717745 1.014959982137 1.112653102745 0.724423293036 1.642586840101
 1.041081130481 0.960307162254 0.960539933653 1.041333480897 0.653495376320 1.739421172972
 1.052877019332 0.936768716595 0.949778541690 1.067499354200 0.625446672579 1.864071853745
 1.044074335766 0.902439841539 0.957786209031 1.108107104729 0.698645973737 1.647417347806
 0.995799649873 0.987274241319 1.004218067487 1.012889791051 0.659121942436 1.742252551416
 1.032555278185 0.915113654350 0.968471152225 1.092760440462 0.636272823086 1.875237176717
 1.040654211911 0.898758142468 0.960933986096 1.112646386996 0.700222997347 1.650421683346
 0.927900023073 0.890519461254 1.077702311817 1.122940085545 0.696125742570 1.821237316101
 1.043006461386 1.042514812566 0.958766831292 0.959218984658 0.624248786450 1.751791919172
 0.931419224500 0.877568714347 1.073630405832 1.139511907902 0.674163553635 1.922105357854
 1.039765838814 1.028351738818 0.961755005474 0.972429920865 0.610845891812 1.826747030602
 0.987375425188 0.897071301724 1.012785992531 1.114738592214 0.730837722492 1.623080071231
 1.020633603329 0.900301622758 0.979783535187 1.110738862090 0.675440812764 1.756703571559
 0.925812189940 0.917609450382 1.080132677952 1.089788253144 0.653681101381 1.957731361053
 1.046856865741 0.942668595072 0.955240427536 1.060818197645 0.599077524311 1.989142058482
 1.015369794323 0.955787814331 0.984862860399 1.046257323023 0.626061203637 1.888768507853
 0.955303382683 0.950024064465 1.046787877157 1.052604915396 0.657277696105 1.849633023730
 0.999026812936 0.892065615435 1.000974135079 1.120993772989 0.651576827088 1.891331026024
 0.953834985101 0.941195527060 1.048399372659 1.062478487465 0.691969797158 1.734607466839
 0.982910923591 0.875962713147 1.017386190344 1.141601103553 0.638888436283 1.999926621617
 1.063367542561 0.925704240224 0.940408616942 1.080258636125 0.623498995578 1.872318903569
 1.058348708925 1.024666908226 0.944868162607 0.975926900705 0.595209440250 1.876433806035
 1.037300310320 0.959353746740 0.964040972562 1.042368368705 0.607317396683 1.938198827661
 1.055286211889 1.009661273204 0.947610220558 0.990431173840 0.589150902928 1.929440786110
 1.061038720298 0.946426483632 0.942472674060 1.056606104430 0.611419289667 1.902194642088
 0.910316537803 0.894954654591 1.098518985949 1.117375047853 0.666429080747 1.962463480515
 1.011430322270 1.008414424649 0.988698853477 0.991655787102 0.643123666460 1.757107046818
 1.048370109135 0.894755379432 0.953861609833 1.117623903681 0.616107636313 1.973221187631
 0.995025548644 0.900761858765 1.004999320231 1.110171340260 0.647743464893 1.901426421743
 1.067068984006 1.025199264753 0.937146534093 0.975420129901 0.567763856668 2.001004493158
 1.030239367102 0.953196215209 0.970648212379 1.049101941493 0.644551532675 1.795212230616
 1.031279745585 1.020528721637 0.969669000367 0.979884229418 0.658730913131 1.665727816855
 0.940759884165 0.885482013586 1.062970495269 1.129328416227 0.651298176750 1.996707410545
 1.014499044085 1.003893342548 0.985708173734 0.996121756782 0.682558646609 1.624549148641
 1.019477958270 0.940987173602 0.980894184017 1.062713741540 0.614904257285 1.955459249057
 1.060093009044 1.045162666791 0.943313455959 0.956788863374 0.572793200668 1.955575607605
 1.018156121594 0.905110542604 0.982167644815 1.104837423640 0.635058679632 1.916000177718
 1.020963937240 0.957483498430 0.979466525236 1.044404422259 0.607529498310 1.964613901479
 1.046248023014 0.975112769690 0.955796310247 1.025522412467 0.633763156314 1.790261240900
 1.006032284682 0.881489634120 0.994003885588 1.134443289283 0.649353409259 1.905405483204
 1.003769059050 0.871328877543 0.996245093415 1.147672280551 0.659879637062 1.878479352058
 1.035404631875 1.027234667032 0.965805994309 0.973487394939 0.574872805085 2.006943406250
 1.041562030528 0.982660807010 0.960096442353 1.017645145574 0.673652740694 1.645659080115
 0.935371166638 0.903032355118 1.069094318563 1.107380033875 0.648248162607 1.991082017412
 0.968696331023 0.889989367316 1.032315255024 1.123608929189 0.638153370632 2.004825660535
 0.992356439483 0.980638052642 1.007702434541 1.019744234181 0.673400993514 1.704162924225
 0.963019267569 0.962924898767 1.038400822991 1.038502588604 0.654006957598 1.834441664772
 0.951581706961 0.904757099394 1.050881908179 1.105269028196 0.726463161516 1.670122078766
 1.019176623568 0.967020815906 0.981184199947 1.034103902989 0.618655401753 1.900901453243
 1.014374957719 0.954243386218 0.985828753353 1.047950674265 0.637237924764 1.844393601608
 0.982199062327 0.896663921105 1.018123553926 1.115245050529 0.699675879074 1.726980438797
 0.997896738915 0.996048693405 1.002107694116 1.003966981355 0.632733873843 1.830191361702
 0.947253945553 0.922674110927 1.055683119288 1.083806284534 0.650505304425 1.930057172964
 1.049176885537 0.889567278503 0.953128127187 1.124142067908 0.659483037840 1.790702619385
 1.003578392529 0.948054293787 0.996434366706 1.054791910709 0.646169173406 1.830708026478
 1.037831452506 0.870442644393 0.963547594925 1.148840772498 0.650518182469 1.867553742512
 1.020524759108 0.892221029022 0.979888034147 1.120798510092 0.694561883447 1.700407118885
 0.951517792083 0.912957283879 1.050952497495 1.095341499168 0.734599088529 1.636588646304
 0.963000156218 0.940137375136 1.038421430716 1.063674337866 0.717858660440 1.642271476974
 1.051791048445 0.896415429178 0.950759184990 1.115554203386 0.617590740254 1.957961681008
 0.996088006023 0.947384465466 1.003927357777 1.055537679212 0.628927659004 1.915852076844
 1.025994145190 0.990449286842 0.974664431262 1.009642808859 0.597520591746 1.957889901327
 0.978380081990 0.886437263371 1.022097667775 1.128111420087 0.642052240002 1.975408687699
 0.991782007322 0.981116058327 1.008286087686 1.019247408615 0.662937719148 1.740752545233
 0.989771344323 0.947109740691 1.010334362311 1.055843855296 0.665892617935 1.774114904961
 1.044435112801 0.975820286154 0.957455362946 1.024778859580 0.605144604303 1.914916035639
 1.039593298112 1.037243448895 0.961914627399 0.964093821046 0.607986458154 1.828026818001
 0.978198046898 0.871012766399 1.022287872248 1.148088797980 0.674702186338 1.857071851912
 1.051723711074 0.911768909979 0.950820058035 1.096769136406 0.665672957709 1.738051001076
 0.921579838458 0.910626491447 1.085093182673 1.098145078572 0.691370583046 1.819738433399
 0.952726861053 0.872735518155 1.049618774152 1.145822507733 0.746953684877 1.644799782812
 0.997302585418 0.910925266836 1.002704710307 1.097784896749 0.704329747993 1.676337076794
 0.959818955539 0.897993734195 1.041863149533 1.113593516214 0.745999820184 1.610979030638
 0.991340640435 0.932205960503 1.008734999062 1.072724314550 0.616364227203 2.006747942424
 0.973565754366 0.889785093401 1.027151987953 1.123866883606 0.736746412181 1.630147608323
 0.981202043451 0.934966583941 1.019158089483 1.069556941581 0.631649849311 1.944292258292
 1.048233731322 0.880472422882 0.953985709598 1.135753913481 0.621699262700 1.967510397446
 1.050235274576 0.959701404729 0.952167599211 1.041990764077 0.670460837029 1.670466665051
 1.016541947638 0.964190519616 0.983727235579 1.037139423854 0.600115871859 1.998833340257
 1.036961072062 0.906926365691 0.964356355260 1.102625348462 0.614912135939 1.979138176504
 1.010513544245 0.881007338298 0.989595840348 1.135064325266 0.635347578189 1.962643065642
 1.068409929959 0.936795540979 0.935970334943 1.067468787218 0.637288511935 1.794020277747
 1.012235882701 0.968292492470 0.987912024351 1.032745795073 0.600154119363 1.999088428327
 1.014639112467 0.968628800929 0.985572099195 1.032387225158 0.659161745523 1.741438818116
 0.943095353322 0.884622601446 1.060338168858 1.130425560420 0.668599789376 1.916253728235
 1.054705917264 0.953782683305 0.948131591595 1.048456862872 0.630751281191 1.817547841591
 0.955315185063 0.871040527377 1.046774944684 1.148052207182 0.737840814305 1.670415236677
 1.027852939690 0.879149930241 0.972901824167 1.137462411817 0.644645557109 1.895726864252
 0.979502865610 0.938143222850 1.020926058626 1.065935323779 0.622516698495 1.985756371627
 1.029491236034 1.019912318954 0.971353582234 0.980476440392 0.608696594042 1.860003041787
 1.012771352894 0.978906667368 0.987389697727 1.021547848570 0.635719850327 1.820729082317
 0.973111996782 0.917043892466 1.027630944133 1.090460345699 0.650033771517 1.901008554564
 1.068464750226 1.003624529116 0.935922312634 0.996388560651 0.606943777602 1.837726157870
 0.940669586195 0.882104406054 1.063072533305 1.133652652834 0.676138909191 1.892318456105
 1.026304558853 0.916208264161 0.974369636551 1.091454900721 0.669076666013 1.753172501314
 1.026290702563 0.883514106472 0.974382791837 1.131843841173 0.676801540113 1.764591462249
 0.977522874957 0.929578696524 1.022993963230 1.075756150328 0.686342705153 1.738401249706
 0.903126495735 0.894214334714 1.107264602160 1.118300122442 0.760451876187 1.641428256046
 1.040976391006 0.961853015214 0.960636579888 1.039659890007 0.678985517321 1.650932679491
 1.065670225800 0.904792961654 0.938376596990 1.105225219892 0.629383663010 1.870944182847
 0.897653258776 0.886590685674 1.114015896699 1.127916203224 0.723879646687 1.771016722395
 1.034799113867 0.954567313885 0.966371140639 1.047595057420 0.624605620594 1.869421534966
 1.050186130011 0.873026260303 0.952212156896 1.145440916809 0.656568139851 1.821370632839
 0.994183804548 0.885233761808 1.005850221484 1.129645121033 0.679725993542 1.795579682310
 0.932645610965 0.924576801324 1.072218630789 1.081575915130 0.642259275699 1.988488769297
 1.012605800981 0.920902677374 0.987551127034 1.085891076842 0.673651987415 1.748754867623
 0.963403396600 0.876883174391 1.037986790921 1.140402768812 0.713749974203 1.728813242711
 0.993583653899 0.943602820766 1.006457781462 1.059767921410 0.712510070747 1.619979713852
 1.053159392882 0.917022900365 0.949523886658 1.090485308057 0.685166282693 1.664154646358
 1.056734081739 1.020493542640 0.946311865285 0.979918008509 0.573854980474 1.990345873665
 1.041994249435 1.041181532196 0.959698194632 0.960447308253 0.619917762316 1.771389484316
 0.927931552056 0.880522470736 1.077665693967 1.135689358574 0.660664656491 1.983006922517
 0.999005620876 0.938366204319 1.000995368898 1.065682028400 0.651943537135 1.826514743698
 1.044747983715 1.043368694212 0.957168633573 0.958433970223 0.569154643140 1.999826237369
 1.065522686776 0.956429006966 0.938506530561 1.045555909238 0.674667579145 1.642910701572
 1.006337771697 0.922202534366 0.993702142685 1.084360498626 0.693587471718 1.687192108261
 0.934525157593 0.930427196409 1.070062150682 1.074775118203 0.645852529608 1.959040338914
 1.042192030452 1.016202850228 0.959516068806 0.984055496180 0.641000339177 1.720044942858
 0.940757402708 0.924720012248 1.062973299091 1.081408412011 0.667314178626 1.865588034378
 0.943685674761 0.893612753807 1.059674875592 1.119052963087 0.697604746724 1.789403349042
 1.032386413092 0.947361880134 0.968629562845 1.055562843482 0.600307727617 1.998648255148
 1.053372522099 0.889045604298 0.949331769170 1.124801692023 0.696655906479 1.656572015083
 1.065341563671 0.898133385285 0.938666089920 1.113420363149 0.610137676693 1.970475841827
 1.018432713008 0.938941527434 0.981900902463 1.065029046838 0.707218294440 1.612928035165
 1.024477265468 1.001499133533 0.976107556221 0.998503110504 0.590414413722 1.979837633427
 0.891132950737 0.883226957040 1.122167011301 1.132211819431 0.677624721963 1.964327932155
 1.065059111218 0.881308508571 0.938915023088 1.134676438812 0.631275516226 1.895157733368
 1.041651758355 0.905043638196 0.960013739697 1.104919097596 0.639727041039 1.860901683696
 0.932260399831 0.916036134735 1.072661672834 1.091659992528 0.669375927334 1.882371337126
 0.996123917580 0.988047698022 1.003891164896 1.012096887632 0.626266068441 1.870501796095
 1.047107955956 0.901083468685 0.955011366605 1.109775103809 0.659043937540 1.781113865670
 1.053984848559 0.961090565637 0.948780242303 1.040484669972 0.618469299378 1.861026011689
 0.915389302740 0.893611604619 1.092431380842 1.119054402193 0.764121772880 1.617387182542
 0.901662605336 0.885834781116 1.109062296787 1.128878681802 0.729430836162 1.748102399000
 1.043807024497 0.970857934687 0.958031491005 1.030016817365 0.589259344430 2.002404528486
 0.973651993107 0.954492777477 1.027061010587 1.047676864191 0.618745603606 1.987888343907
 0.972213332751 0.944296241082 1.028580833355 1.058989707355 0.657786335366 1.832057807773
 1.022687132092 0.994140177561 0.977816155714 1.005894362356 0.603433345100 1.928560964432
 0.889585669823 0.882814578439 1.124118827362 1.132740695978 0.704917542675 1.855869156287
 1.045216161155 0.909662795537 0.956739894736 1.099308452436 0.605771392491 2.007993936378
 1.025993465987 1.014288571949 0.974665076486 0.985912715233 0.645602421467 1.724075875666
 1.012669894657 0.999396373562 0.987488623170 1.000603991023 0.672530599292 1.663136187506
 0.930288005805 0.882211895018 1.074935927111 1.133514528253 0.681379666580 1.886826525862
 1.012711108704 0.987001137805 0.987448435595 1.013170057964 0.602361513455 1.958770593172
 1.030314715563 0.889024429412 0.970577227419 1.124828482679 0.682649760676 1.731956298789
 0.919663470146 0.891490715820 1.087354268667 1.121716673270 0.654825421269 2.006178460413
 1.034824902845 0.918260832874 0.966347057604 1.089015195029 0.702264743518 1.630611200755
 0.997745477866 0.911890936823 1.002259616490 1.096622369649 0.639894167895 1.915659904694
 0.938513725628 0.905618538683 1.065514518001 1.104217678068 0.698653728032 1.776816805958
 0.925000069435 0.879092921885 1.081080999929 1.137536175193 0.671243078234 1.942704207150
 1.032010243849 0.938640677003 0.968982629737 1.065370406909 0.621306108525 1.909893202393
 1.012948732820 0.873077305119 0.987216793506 1.145373948145 0.715068495145 1.665570285595
 1.000358253484 0.956293787719 0.999641874815 1.045703750084 0.624590334329 1.916397517639
 0.936808933308 0.911131860798 1.067453527017 1.097535980274 0.687572207190 1.811822070422
 1.003576813196 0.927489740279 0.996435934800 1.078179042390 0.714699306776 1.619337000923
 0.934013078390 0.887829162008 1.070648819740 1.126342817731 0.735986088272 1.682881301283
 1.035123728092 0.884480741540 0.966068087188 1.130606866871 0.659162629547 1.817817618701
 1.066062977934 0.954097531691 0.938030886260 1.048110876283 0.616181253607 1.863520983492
 0.979815490975 0.956363382771 1.020600316295 1.045627653688 0.629761409512 1.923146139169
 0.985817787754 0.901750313331 1.014386240969 1.108954424763 0.666174712294 1.837358278648
 0.984793624634 0.926607557944 1.015441179742 1.079205529273 0.657539320553 1.839479974185
 1.023669875798 0.951211118646 0.976877432503 1.051291327864 0.627727797109 1.875952491927
 1.042913011214 0.935152251812 0.958852741549 1.069344588609 0.693579071251 1.630609732016
 1.028058494961 0.997926191827 0.972707297203 1.002078117791 0.633198702091 1.787600798352
 0.946229315443 0.871933916124 1.056826272109 1.146875905970 0.755259228196 1.629909809255
 0.975355935937 0.911152623177 1.025266739203 1.097510970789 0.699550591712 1.718697141558
 0.934592484537 0.911637799391 1.069985064663 1.096926872347 0.751649324195 1.609207844120
 1.059274999035 0.922610242304 0.944041916321 1.083881312115 0.649268620080 1.776336980720
 0.991409982238 0.978231652013 1.008664445503 1.022252753672 0.697877449778 1.629303079372
 0.970509058123 0.893574646652 1.030387085654 1.119100685933 0.671868660205 1.848161440964
 0.924073913052 0.875080024804 1.082164517227 1.142752630223 0.668819274328 1.961459760643
 1.006882679857 0.880772333306 0.993164367613 1.135367179673 0.722141609473 1.643034494056
 0.987364622769 0.935913104563 1.012797073077 1.068475262420 0.621695296492 1.980658483082
 0.947124940550 0.890334594094 1.055826910670 1.123173250409 0.666285570638 1.911049097494
 1.027215377746 0.871278891444 0.973505675309 1.147738123601 0.662513407303 1.833011507422
 0.965455820805 0.929987472003 1.035780176006 1.075283302307 0.625826389736 2.005504886036
 1.036394805085 0.992323802590 0.964883261759 1.007735577228 0.630904345402 1.793096492612
 1.038102083565 0.995733657938 0.963296400066 1.004284621723 0.609313880374 1.877599122267
 1.051743939378 0.998181880338 0.950801770811 1.001821431242 0.615239819742 1.830576063187
 1.022869077381 0.878018281390 0.977642224321 1.138928449664 0.686768715337 1.740315488000
 1.053586152331 0.985629975847 0.949139278062 1.014579532386 0.603209310441 1.897635417767
 1.021093555592 0.992683972504 0.979342191050 1.007369946225 0.594380277989 1.977796861199
 1.017187665117 0.910840239058 0.983102759003 1.097887375984 0.621387912471 1.973117355562
 1.034739250709 0.981935405129 0.966427048471 1.018396927921 0.622067633086 1.844518603337
 0.986067970809 0.963256226442 1.014128873063 1.038145378716 0.687025502732 1.686035969731
 0.937221065182 0.878308545718 1.066984126958 1.138552055397 0.666322321915 1.945475393413
 0.895452633014 0.872706631383 1.116753654110 1.145860434698 0.759464336693 1.679970104336
 0.953372440881 0.899286168927 1.048908020748 1.111993083574 0.717334154786 1.702829933106
 0.927876766092 0.892282101883 1.077729324134 1.120721796268 0.671792532796 1.914941588952
 0.994920341536 0.884117445543 1.005105593134 1.131071448755 0.715758916461 1.673526062144
 1.057063789171 0.873218335501 0.946016702345 1.145188962880 0.673637444956 1.747095121723
 1.025607646827 0.892403902717 0.975031731768 1.120568833188 0.637396476443 1.912351669156
 0.964732800160 0.875615128745 1.036556443229 1.142054273814 0.666839418435 1.903276508860
 0.995159607773 0.901258736110 1.004863935583 1.109559286289 0.657879972662 1.857862439134
 0.982558037153 0.900140180467 1.017751585339 1.110938075758 0.730779034261 1.625577746849
 0.952733582865 0.876597355525 1.049611368787 1.140774602726 0.652927781446 1.983247387447
 1.067677561512 0.979276207204 0.936612359431 1.021162357099 0.592801300119 1.935958432603
 0.997097938287 0.892836114416 1.002910508188 1.120026378697 0.671833483255 1.811338431908
 0.950185369888 0.898463094394 1.052426223020 1.113011771145 0.725615670302 1.681824538271
 0.998801135613 0.981949545404 1.001200303388 1.018382262796 0.616720577325 1.917953472945
 0.978204641400 0.902374747765 1.022280980561 1.108187039228 0.639418128424 1.962938963543
 1.011610829542 0.980523787358 0.988522434515 1.019863070018 0.624465810102 1.867284285792
 0.908617834854 0.875786716605 1.100572717859 1.141830517682 0.672596840869 1.969532503256
 0.906254457977 0.894348538650 1.103442847864 1.118132312834 0.659591807077 2.001893515946
 1.056993489130 0.916793932029 0.946079621382 1.090757655635 0.648528924500 1.789167455714
 0.998727813581 0.992914985218 1.001273806939 1.007135570404 0.649862954371 1.765912991108
 1.065233582520 0.958116830160 0.938761241112 1.043714052944 0.600345080107 1.932262349281
 1.063176988885 0.985954919520 0.940577166789 1.014245154826 0.606640187709 1.868447044829
 0.997840443802 0.991516923053 1.002164229974 1.008555655229 0.609095624824 1.941391407631
 0.925728464339 0.881433834390 1.080230368322 1.134515105937 0.732075011131 1.713443954203
 0.927633393567 0.923535332185 1.078012075606 1.082795606351 0.676641471466 1.849109316658
 0.988845566205 0.937825084326 1.011280258693 1.066296921157 0.685832903213 1.716164060858
 0.902672131742 0.890015450944 1.107821948674 1.123575999652 0.741324229421 1.703554504674
 1.059415296417 0.985693347895 0.943916897729 1.014514303191 0.632688389689 1.765563637271
 1.057982230753 1.027851305572 0.945195458801 0.972903370925 0.578080409543 1.955706753135
 0.960576332838 0.948047023231 1.041041680723 1.054799999890 0.649568788179 1.876700430323
 1.025285386543 0.964426009948 0.975338196686 1.036886178602 0.607569126058 1.947601449244
 1.032407163431 0.908845416275 0.968610094371 1.100297126544 0.699157268111 1.652885081010
 1.012101679576 0.954926878438 0.988043019965 1.047200599941 0.604455832633 1.997919922577
 1.062470672916 1.000112180928 0.941202449622 0.999887831655 0.648575033505 1.687857085257
 0.964620839464 0.951267919554 1.036676753278 1.051228554485 0.663057330242 1.812434869351
 0.994921723576 0.946871282191 1.005104196947 1.056109757269 0.708096916461 1.628136145652
 1.038141092047 1.002384870536 0.963260203898 0.997620803539 0.664906528877 1.657109915420
 1.032539692642 0.996949976433 0.968485770693 1.003059354670 0.589005352093 1.981724152464
 0.959350186765 0.945240572850 1.042372236745 1.057931735817 0.705440088591 1.678872473795
 0.962780305169 0.937820919519 1.038658554430 1.066301656518 0.691103269079 1.730539748263
 1.052179362183 0.957440751568 0.950408301039 1.044451051788 0.615021255799 1.883580696994
 1.022777494889 0.947400953676 0.977729765269 1.055519309032 0.676892922853 1.694377739231
 1.006686822576 1.005094694918 0.993357594015 0.994931129431 0.598653031045 1.959352596336
 0.946316463045 0.881644382443 1.056728947505 1.134244169094 0.663844057011 1.936275374423
 1.065484291241 0.939709825654 0.938540350356 1.064158288761 0.680464133393 1.641451754294
 1.030401152029 0.900230549390 0.970495809356 1.110826555128 0.670668040823 1.761191493808
 1.065783602311 0.923363873997 0.938276773851 1.082996669202 0.667882439797 1.699860179792
 0.998851546373 0.977966736479 1.001149774090 1.022529665579 0.647127506752 1.794703963469
 1.025277404520 0.997629506765 0.975345789921 1.002376125825 0.643638585999 1.751384086492
 0.945469897497 0.907883158223 1.057675133442 1.101463322612 0.704655164935 1.743948201967
 0.994683155226 0.976732914809 1.005345264717 1.023821338299 0.607264264636 1.977312366016
 1.011299512839 0.976495577912 0.988826739560 1.024070177705 0.626000159207 1.866498955215
 0.946192884220 0.896627250670 1.056866963045 1.115290662037 0.646696799199 1.990802580847
 0.970161136292 0.903758731782 1.030756605879 1.106490000963 0.647705459630 1.935631746987
 0.977041152941 0.971909840138 1.023498341897 1.028902022289 0.643915005445 1.844084933190
 0.949316834247 0.877179469464 1.053389094056 1.140017561756 0.744464566425 1.651141874970
 0.990198326780 0.884200625820 1.009898697014 1.130965044356 0.685458782576 1.781374988226
 1.037753563041 1.034520332214 0.963619914799 0.966631557506 0.624351621010 1.766797331894
 0.960311332241 0.902592229761 1.041328959085 1.107920018616 0.737965054396 1.628146933015
 0.994436600472 0.889317831766 1.005594524101 1.124457381018 0.664027826459 1.850400275424
 0.948876957710 0.936310565742 1.053877419906 1.068021697701 0.639547957558 1.956092429499
 1.068795404009 0.997963551268 0.935632765868 1.002040604318 0.594800068108 1.899331400157
 1.034911027758 0.971799939966 0.966266638559 1.029018380095 0.622386833610 1.856092210942
 1.066827341303 0.915469172421 0.937358803327 1.092336072176 0.681413667309 1.661774133465
 0.923528810694 0.887194434605 1.082803252503 1.127148639571 0.758843574498 1.629757282078
 1.010792253628 0.955591125751 0.989322975528 1.046472673356 0.608256441436 1.979660191983
 1.049060661221 0.934410401666 0.953233723240 1.070193566143 0.675582061067 1.681891996260
 1.025048177656 0.997132755647 0.975563902066 1.002875489083 0.623915494278 1.829976982566
 1.021415676608 0.982577023314 0.979033338631 1.017731919506 0.622543957273 1.859505664413
 1.017018147505 0.886430825098 0.983266623564 1.128119613720 0.689738107548 1.727793119524
 0.979865385605 0.939706826814 1.020548347447 1.064161684757 0.692007364156 1.704255645268
 0.969154528242 0.934975635694 1.031827196653 1.069546586909 0.659218529337 1.843259299178
 1.058081428662 0.878119837237 0.945106844248 1.138796730918 0.619190646985 1.967291454423
 1.045531010970 0.940272656418 0.956451783360 1.063521302225 0.634324156942 1.832154935299
 1.011729625726 0.876028103214 0.988406363294 1.141515890108 0.641320214066 1.940397432617
 0.984628692294 0.897699775476 1.015611273393 1.113958171004 0.721135969804 1.654376502030
